-973.096751 -116.012574 -33.830250
-972.865336 -115.865823 -35.811389
-972.633921 -115.719072 -37.792527
-972.402506 -115.572321 -39.773666
-972.171091 -115.425570 -41.754805
-971.939676 -115.278819 -43.735944
-971.708261 -115.132068 -45.717083
-971.476846 -114.985317 -47.698222
-971.245431 -114.838566 -49.679361
-971.014016 -114.691815 -51.660500
-970.782601 -114.545064 -53.641638
-970.551186 -114.398313 -55.622777
-970.319770 -114.251562 -57.603916
-970.088355 -114.104811 -59.585055
-969.856940 -113.958060 -61.566194
-969.625525 -113.811309 -63.547333
-969.394110 -113.664558 -65.528472
-969.162695 -113.517807 -67.509610
-968.931280 -113.371056 -69.490749
-968.699865 -113.224305 -71.471888
-968.468450 -113.077554 -73.453027
-968.237035 -112.930803 -75.434166
-968.005620 -112.784051 -77.415305
-967.774205 -112.637300 -79.396444
-967.542790 -112.490549 -81.377582
-967.311374 -112.343798 -83.358721
-967.079959 -112.197047 -85.339860
-966.769231 -112.000000 -88.000000
-965.516471 -110.548159 -88.568112
-964.263712 -109.096317 -89.136224
-963.010953 -107.644476 -89.704335
-961.758193 -106.192635 -90.272447
-960.505434 -104.740794 -90.840559
-959.252675 -103.288952 -91.408671
-957.999915 -101.837111 -91.976783
-956.747156 -100.385270 -92.544894
-955.494397 -98.933429 -93.113006
-954.241637 -97.481587 -93.681118
-952.988878 -96.029746 -94.249230
-951.736119 -94.577905 -94.817342
-950.483359 -93.126064 -95.385453
-949.230600 -91.674222 -95.953565
-947.977841 -90.222381 -96.521677
-946.725081 -88.770540 -97.089789
-945.472322 -87.318699 -97.657901
-944.219563 -85.866857 -98.226012
-942.966803 -84.415016 -98.794124
-941.714044 -82.963175 -99.362236
-940.461285 -81.511334 -99.930348
-939.208525 -80.059492 -100.498459
-937.955766 -78.607651 -101.066571
-936.703007 -77.155810 -101.634683
-935.450247 -75.703969 -102.202795
-934.197488 -74.252127 -102.770907
-932.944729 -72.800286 -103.339018
-931.691969 -71.348445 -103.907130
-930.439210 -69.896604 -104.475242
-929.186451 -68.444762 -105.043354
-927.933691 -66.992921 -105.611466
-926.680932 -65.541080 -106.179577
-925.428173 -64.089239 -106.747689
-924.175413 -62.637397 -107.315801
-922.922654 -61.185556 -107.883913
-921.669894 -59.733715 -108.452025
-920.417135 -58.281874 -109.020136
-919.164376 -56.830032 -109.588248
-917.911616 -55.378191 -110.156360
-916.658857 -53.926350 -110.724472
-915.406098 -52.474509 -111.292584
-914.153338 -51.022667 -111.860695
-912.900579 -49.570826 -112.428807
-911.647820 -48.118985 -112.996919
-910.395060 -46.667144 -113.565031
-909.142301 -45.215302 -114.133143
-907.889542 -43.763461 -114.701254
-906.636782 -42.311620 -115.269366
-905.384023 -40.859779 -115.837478
-904.131264 -39.407937 -116.405590
-902.878504 -37.956096 -116.973702
-901.625745 -36.504255 -117.541813
-900.372986 -35.052414 -118.109925
-899.120226 -33.600572 -118.678037
-897.867467 -32.148731 -119.246149
-896.614708 -30.696890 -119.814260
-895.361948 -29.245049 -120.382372
-894.109189 -27.793207 -120.950484
-892.856430 -26.341366 -121.518596
-891.603670 -24.889525 -122.086708
-890.350911 -23.437684 -122.654819
-889.098152 -21.985842 -123.222931
-887.845392 -20.534001 -123.791043
-886.592633 -19.082160 -124.359155
-885.339874 -17.630319 -124.927267
-884.087114 -16.178477 -125.495378
-882.834355 -14.726636 -126.063490
-881.581596 -13.274795 -126.631602
-880.328836 -11.822954 -127.199714
-879.076077 -10.371112 -127.767826
-877.823318 -8.919271 -128.335937
-876.570558 -7.467430 -128.904049
-875.317799 -6.015589 -129.472161
-874.065040 -4.563747 -130.040273
-872.812280 -3.111906 -130.608385
-871.559521 -1.660065 -131.176496
-870.306761 -0.208224 -131.744608
-869.054002 1.243618 -132.312720
-867.801243 2.695459 -132.880832
-866.548483 4.147300 -133.448944
-865.295724 5.599141 -134.017055
-864.042965 7.050983 -134.585167
-862.790205 8.502824 -135.153279
-861.537446 9.954665 -135.721391
-860.284687 11.406506 -136.289503
-859.031927 12.858348 -136.857614
-857.779168 14.310189 -137.425726
-856.526409 15.762030 -137.993838
-855.273649 17.213871 -138.561950
-854.020890 18.665713 -139.130061
-852.768131 20.117554 -139.698173
-851.515371 21.569395 -140.266285
-850.262612 23.021236 -140.834397
-849.009853 24.473078 -141.402509
-847.757093 25.924919 -141.970620
-846.504334 27.376760 -142.538732
-845.251575 28.828601 -143.106844
-843.998815 30.280443 -143.674956
-842.746056 31.732284 -144.243068
-841.493297 33.184125 -144.811179
-840.240537 34.635966 -145.379291
-838.987778 36.087808 -145.947403
-837.735019 37.539649 -146.515515
-836.482259 38.991490 -147.083627
-835.229500 40.443331 -147.651738
-833.976741 41.895173 -148.219850
-832.723981 43.347014 -148.787962
-831.471222 44.798855 -149.356074
-830.218463 46.250696 -149.924186
-828.965703 47.702538 -150.492297
-827.712944 49.154379 -151.060409
-826.460185 50.606220 -151.628521
-825.207425 52.058062 -152.196633
-823.954666 53.509903 -152.764745
-822.701907 54.961744 -153.332856
-821.449147 56.413585 -153.900968
-820.196388 57.865427 -154.469080
-818.943628 59.317268 -155.037192
-817.690869 60.769109 -155.605304
-816.438110 62.220950 -156.173415
-815.185350 63.672792 -156.741527
-813.932591 65.124633 -157.309639
-812.679832 66.576474 -157.877751
-811.427072 68.028315 -158.445862
-810.174313 69.480157 -159.013974
-808.000000 72.000000 -160.000000
-809.396346 72.121421 -161.426701
-810.792691 72.242843 -162.853402
-812.189037 72.364264 -164.280103
-813.585383 72.485685 -165.706804
-814.981728 72.607107 -167.133505
-816.378074 72.728528 -168.560206
-817.774420 72.849950 -169.986907
-819.170765 72.971371 -171.413608
-820.567111 73.092792 -172.840309
-821.963456 73.214214 -174.267010
-823.359802 73.335635 -175.693711
-824.756148 73.457056 -177.120412
-826.152493 73.578478 -178.547113
-827.548839 73.699899 -179.973814
-828.945185 73.821320 -181.400515
-830.341530 73.942742 -182.827216
-831.737876 74.064163 -184.253917
-833.134222 74.185584 -185.680618
-834.530567 74.307006 -187.107319
-835.926913 74.428427 -188.534020
-837.323259 74.549849 -189.960721
-838.719604 74.671270 -191.387422
-840.115950 74.792691 -192.814123
-841.512295 74.914113 -194.240824
-842.908641 75.035534 -195.667525
-844.304987 75.156955 -197.094226
-845.701332 75.278377 -198.520927
-847.097678 75.399798 -199.947628
-848.494024 75.521219 -201.374329
-849.890369 75.642641 -202.801030
-851.286715 75.764062 -204.227730
-852.683061 75.885484 -205.654431
-854.079406 76.006905 -207.081132
-855.475752 76.128326 -208.507833
-856.872098 76.249748 -209.934534
-858.268443 76.371169 -211.361235
-859.664789 76.492590 -212.787936
-861.061134 76.614012 -214.214637
-862.457480 76.735433 -215.641338
-863.853826 76.856854 -217.068039
-865.250171 76.978276 -218.494740
-866.646517 77.099697 -219.921441
-868.042863 77.221118 -221.348142
-869.439208 77.342540 -222.774843
-870.835554 77.463961 -224.201544
-872.231900 77.585383 -225.628245
-873.628245 77.706804 -227.054946
-875.024591 77.828225 -228.481647
-876.420937 77.949647 -229.908348
-877.817282 78.071068 -231.335049
-879.213628 78.192489 -232.761750
-880.609973 78.313911 -234.188451
-882.006319 78.435332 -235.615152
-883.402665 78.556753 -237.041853
-884.799010 78.678175 -238.468554
-886.195356 78.799596 -239.895255
-887.591702 78.921018 -241.321956
-888.988047 79.042439 -242.748657
-890.384393 79.163860 -244.175358
-891.780739 79.285282 -245.602059
-893.177084 79.406703 -247.028760
-894.573430 79.528124 -248.455461
-895.969776 79.649546 -249.882162
-897.366121 79.770967 -251.308863
-898.762467 79.892388 -252.735564
-900.158812 80.013810 -254.162265
-901.555158 80.135231 -255.588966
-902.951504 80.256653 -257.015667
-904.347849 80.378074 -258.442368
-905.744195 80.499495 -259.869069
-907.140541 80.620917 -261.295770
-908.536886 80.742338 -262.722471
-909.933232 80.863759 -264.149172
-911.329578 80.985181 -265.575873
-912.725923 81.106602 -267.002574
-914.122269 81.228023 -268.429275
-915.518615 81.349445 -269.855976
-916.914960 81.470866 -271.282677
-918.311306 81.592287 -272.709378
-919.707651 81.713709 -274.136079
-921.103997 81.835130 -275.562780
-922.500343 81.956552 -276.989481
-923.896688 82.077973 -278.416182
-925.293034 82.199394 -279.842883
-926.689380 82.320816 -281.269584
-928.085725 82.442237 -282.696285
-929.482071 82.563658 -284.122986
-930.878417 82.685080 -285.549687
-932.274762 82.806501 -286.976388
-933.671108 82.927922 -288.403089
-935.067454 83.049344 -289.829790
-936.463799 83.170765 -291.256490
-937.860145 83.292187 -292.683191
-939.256490 83.413608 -294.109892
-940.652836 83.535029 -295.536593
-942.049182 83.656451 -296.963294
-943.445527 83.777872 -298.389995
-944.841873 83.899293 -299.816696
-946.238219 84.020715 -301.243397
-947.634564 84.142136 -302.670098
-949.030910 84.263557 -304.096799
-950.427256 84.384979 -305.523500
-951.823601 84.506400 -306.950201
-953.219947 84.627821 -308.376902
-954.616293 84.749243 -309.803603
-956.012638 84.870664 -311.230304
-957.408984 84.992086 -312.657005
-958.805330 85.113507 -314.083706
-960.201675 85.234928 -315.510407
-961.598021 85.356350 -316.937108
-962.994366 85.477771 -318.363809
-964.390712 85.599192 -319.790510
-965.787058 85.720614 -321.217211
-967.183403 85.842035 -322.643912
-968.579749 85.963456 -324.070613
-969.976095 86.084878 -325.497314
-971.372440 86.206299 -326.924015
-972.768786 86.327721 -328.350716
-974.165132 86.449142 -329.777417
-975.561477 86.570563 -331.204118
-976.957823 86.691985 -332.630819
-978.354169 86.813406 -334.057520
-979.750514 86.934827 -335.484221
-981.146860 87.056249 -336.910922
-982.543205 87.177670 -338.337623
-983.939551 87.299091 -339.764324
-985.335897 87.420513 -341.191025
-986.732242 87.541934 -342.617726
-988.128588 87.663355 -344.044427
-989.524934 87.784777 -345.471128
-992.000000 88.000000 -348.000000
-993.952374 87.566139 -348.000000
-995.904748 87.132278 -348.000000
-997.857122 86.698417 -348.000000
-999.809496 86.264556 -348.000000
-1001.761871 85.830695 -348.000000
-1003.714245 85.396835 -348.000000
-1005.666619 84.962974 -348.000000
-1007.618993 84.529113 -348.000000
-1009.571367 84.095252 -348.000000
-1011.523741 83.661391 -348.000000
-1013.476115 83.227530 -348.000000
-1015.428489 82.793669 -348.000000
-1017.380864 82.359808 -348.000000
-1019.333238 81.925947 -348.000000
-1021.285612 81.492086 -348.000000
-1023.237986 81.058225 -348.000000
-1025.190360 80.624364 -348.000000
-1027.142734 80.190504 -348.000000
-1029.095108 79.756643 -348.000000
-1031.047482 79.322782 -348.000000
-1032.999857 78.888921 -348.000000
-1034.952231 78.455060 -348.000000
-1036.904605 78.021199 -348.000000
-1038.856979 77.587338 -348.000000
-1040.809353 77.153477 -348.000000
-1042.761727 76.719616 -348.000000
-1044.714101 76.285755 -348.000000
-1046.666475 75.851894 -348.000000
-1048.618849 75.418033 -348.000000
-1050.571224 74.984173 -348.000000
-1052.523598 74.550312 -348.000000
-1054.475972 74.116451 -348.000000
-1056.428346 73.682590 -348.000000
-1058.380720 73.248729 -348.000000
-1060.333094 72.814868 -348.000000
-1062.285468 72.381007 -348.000000
-1064.237842 71.947146 -348.000000
-1066.190217 71.513285 -348.000000
-1068.142591 71.079424 -348.000000
-1070.094965 70.645563 -348.000000
-1072.047339 70.211702 -348.000000
-1073.999713 69.777842 -348.000000
-1075.952087 69.343981 -348.000000
-1077.904461 68.910120 -348.000000
-1079.856835 68.476259 -348.000000
-1081.809210 68.042398 -348.000000
-1083.761584 67.608537 -348.000000
-1085.713958 67.174676 -348.000000
-1087.666332 66.740815 -348.000000
-1089.618706 66.306954 -348.000000
-1091.571080 65.873093 -348.000000
-1093.523454 65.439232 -348.000000
-1095.475828 65.005371 -348.000000
-1097.428202 64.571511 -348.000000
-1100.000000 64.000000 -348.000000
-1100.000000 62.000000 -348.000000
-1100.000000 60.000000 -348.000000
-1100.000000 58.000000 -348.000000
-1100.000000 56.000000 -348.000000
-1100.000000 54.000000 -348.000000
-1100.000000 52.000000 -348.000000
-1100.000000 50.000000 -348.000000
-1100.000000 48.000000 -348.000000
-1100.000000 46.000000 -348.000000
-1100.000000 44.000000 -348.000000
-1100.000000 42.000000 -348.000000
-1100.000000 40.000000 -348.000000
-1100.000000 38.000000 -348.000000
-1100.000000 36.000000 -348.000000
-1100.000000 34.000000 -348.000000
-1100.000000 32.000000 -348.000000
-1100.000000 30.000000 -348.000000
-1100.000000 28.000000 -348.000000
-1100.000000 26.000000 -348.000000
-1100.000000 24.000000 -348.000000
-1100.000000 22.000000 -348.000000
-1100.000000 20.000000 -348.000000
-1100.000000 18.000000 -348.000000
-1100.000000 16.000000 -348.000000
-1100.000000 14.000000 -348.000000
-1100.000000 12.000000 -348.000000
-1100.000000 10.000000 -348.000000
-1100.000000 8.000000 -348.000000
-1100.000000 6.000000 -348.000000
-1100.000000 4.000000 -348.000000
-1100.000000 2.000000 -348.000000
-1100.000000 0.000000 -348.000000
-1100.000000 -2.000000 -348.000000
-1100.000000 -4.000000 -348.000000
-1100.000000 -6.000000 -348.000000
-1100.000000 -8.000000 -348.000000
-1100.000000 -10.000000 -348.000000
-1100.000000 -12.000000 -348.000000
-1100.000000 -14.000000 -348.000000
-1100.000000 -16.000000 -348.000000
-1100.000000 -18.000000 -348.000000
-1100.000000 -20.000000 -348.000000
-1100.000000 -22.000000 -348.000000
-1100.000000 -24.000000 -348.000000
-1100.000000 -26.000000 -348.000000
-1100.000000 -28.000000 -348.000000
-1100.000000 -30.000000 -348.000000
-1100.000000 -32.000000 -348.000000
-1100.000000 -34.000000 -348.000000
-1100.000000 -36.000000 -348.000000
-1100.000000 -38.000000 -348.000000
-1100.000000 -40.000000 -348.000000
-1100.000000 -42.000000 -348.000000
-1100.000000 -44.000000 -348.000000
-1100.000000 -46.000000 -348.000000
-1100.000000 -48.000000 -348.000000
-1100.000000 -50.000000 -348.000000
-1100.000000 -52.000000 -348.000000
-1100.000000 -54.000000 -348.000000
-1100.000000 -56.000000 -348.000000
-1100.000000 -58.000000 -348.000000
-1100.000000 -60.000000 -348.000000
-1100.000000 -62.000000 -348.000000
-1100.000000 -64.000000 -348.000000
-1100.000000 -66.000000 -348.000000
-1100.000000 -68.000000 -348.000000
-1100.000000 -70.000000 -348.000000
-1100.000000 -72.000000 -348.000000
-1100.000000 -74.000000 -348.000000
-1100.000000 -76.000000 -348.000000
-1100.000000 -78.000000 -348.000000
-1100.000000 -80.000000 -348.000000
-1100.000000 -82.000000 -348.000000
-1100.000000 -84.000000 -348.000000
-1100.000000 -86.000000 -348.000000
-1100.000000 -88.000000 -348.000000
-1100.000000 -90.000000 -348.000000
-1100.000000 -92.000000 -348.000000
-1100.000000 -94.000000 -348.000000
-1100.000000 -96.000000 -348.000000
-1100.000000 -98.000000 -348.000000
-1100.000000 -100.000000 -348.000000
-1100.000000 -102.000000 -348.000000
-1100.000000 -104.000000 -348.000000
-1100.000000 -106.000000 -348.000000
-1100.000000 -108.000000 -348.000000
-1100.000000 -110.000000 -348.000000
-1100.000000 -112.000000 -348.000000
-1100.000000 -114.000000 -348.000000
-1100.000000 -116.000000 -348.000000
-1100.000000 -118.000000 -348.000000
-1100.000000 -120.000000 -348.000000
-1100.000000 -122.000000 -348.000000
-1100.000000 -124.000000 -348.000000
-1100.000000 -126.000000 -348.000000
-1100.000000 -128.000000 -348.000000
-1100.000000 -130.000000 -348.000000
-1100.000000 -132.000000 -348.000000
-1100.000000 -134.000000 -348.000000
-1100.000000 -136.000000 -348.000000
-1100.000000 -138.000000 -348.000000
-1100.000000 -140.000000 -348.000000
-1100.000000 -142.000000 -348.000000
-1100.000000 -144.000000 -348.000000
-1100.000000 -146.000000 -348.000000
-1100.000000 -148.000000 -348.000000
-1100.000000 -150.000000 -348.000000
-1100.000000 -152.000000 -348.000000
-1100.000000 -154.000000 -348.000000
-1100.000000 -156.000000 -348.000000
-1100.000000 -160.000000 -348.000000
-1100.000000 -162.000000 -348.000000
-1100.000000 -164.000000 -348.000000
-1100.000000 -166.000000 -348.000000
-1100.000000 -168.000000 -348.000000
-1100.000000 -170.000000 -348.000000
-1100.000000 -172.000000 -348.000000
-1100.000000 -174.000000 -348.000000
-1100.000000 -176.000000 -348.000000
-1100.000000 -178.000000 -348.000000
-1100.000000 -180.000000 -348.000000
-1100.000000 -182.000000 -348.000000
-1100.000000 -184.000000 -348.000000
-1100.000000 -186.000000 -348.000000
-1100.000000 -188.000000 -348.000000
-1100.000000 -190.000000 -348.000000
-1100.000000 -192.000000 -348.000000
-1100.000000 -194.000000 -348.000000
-1100.000000 -196.000000 -348.000000
-1100.000000 -198.000000 -348.000000
-1100.000000 -200.000000 -348.000000
-1100.000000 -202.000000 -348.000000
-1100.000000 -204.000000 -348.000000
-1100.000000 -206.000000 -348.000000
-1100.000000 -208.000000 -348.000000
-1100.000000 -210.000000 -348.000000
-1100.000000 -212.000000 -348.000000
-1100.000000 -214.000000 -348.000000
-1100.000000 -216.000000 -348.000000
-1100.000000 -218.000000 -348.000000
-1100.000000 -220.000000 -348.000000
-1100.000000 -222.000000 -348.000000
-1100.000000 -224.000000 -348.000000
-1100.000000 -226.000000 -348.000000
-1100.000000 -228.000000 -348.000000
-1100.000000 -230.000000 -348.000000
-1100.000000 -232.000000 -348.000000
-1100.000000 -234.000000 -348.000000
-1100.000000 -236.000000 -348.000000
-1100.000000 -238.000000 -348.000000
-1100.000000 -240.000000 -348.000000
-1100.000000 -242.000000 -348.000000
-1100.000000 -244.000000 -348.000000
-1100.000000 -246.000000 -348.000000
-1100.000000 -248.000000 -348.000000
-1100.000000 -250.000000 -348.000000
-1100.000000 -252.000000 -348.000000
-1100.000000 -254.000000 -348.000000
-1100.000000 -256.000000 -348.000000
-1100.000000 -258.000000 -348.000000
-1100.000000 -260.000000 -348.000000
-1100.000000 -262.000000 -348.000000
-1100.000000 -264.000000 -348.000000
-1100.000000 -266.000000 -348.000000
-1100.000000 -268.000000 -348.000000
-1100.000000 -270.000000 -348.000000
-1100.000000 -272.000000 -348.000000
-1100.000000 -274.000000 -348.000000
-1100.000000 -276.000000 -348.000000
-1100.000000 -278.000000 -348.000000
-1100.000000 -280.000000 -348.000000
-1100.000000 -282.000000 -348.000000
-1100.000000 -284.000000 -348.000000
-1100.000000 -286.000000 -348.000000
-1100.000000 -288.000000 -348.000000
-1100.000000 -290.000000 -348.000000
-1100.000000 -292.000000 -348.000000
-1100.000000 -294.000000 -348.000000
-1100.000000 -296.000000 -348.000000
-1100.000000 -298.000000 -348.000000
-1100.000000 -300.000000 -348.000000
-1100.000000 -302.000000 -348.000000
-1100.000000 -304.000000 -348.000000
-1100.000000 -306.000000 -348.000000
-1100.000000 -308.000000 -348.000000
-1100.000000 -310.000000 -348.000000
-1100.000000 -312.000000 -348.000000
-1100.000000 -314.000000 -348.000000
-1100.000000 -316.000000 -348.000000
-1100.000000 -318.000000 -348.000000
-1100.000000 -320.000000 -348.000000
-1100.000000 -322.000000 -348.000000
-1100.000000 -324.000000 -348.000000
-1100.000000 -326.000000 -348.000000
-1100.000000 -328.000000 -348.000000
-1100.000000 -330.000000 -348.000000
-1100.000000 -332.000000 -348.000000
-1100.000000 -334.000000 -348.000000
-1100.000000 -336.000000 -348.000000
-1100.000000 -338.000000 -348.000000
-1100.000000 -340.000000 -348.000000
-1100.000000 -342.000000 -348.000000
-1100.000000 -344.000000 -348.000000
-1100.000000 -346.000000 -348.000000
-1100.000000 -348.000000 -348.000000
-1100.000000 -350.000000 -348.000000
-1100.000000 -352.000000 -348.000000
-1100.000000 -354.000000 -348.000000
-1100.000000 -356.000000 -348.000000
-1100.000000 -358.000000 -348.000000
-1100.000000 -360.000000 -348.000000
-1100.000000 -362.000000 -348.000000
-1100.000000 -364.000000 -348.000000
-1100.000000 -366.000000 -348.000000
-1100.000000 -368.000000 -348.000000
-1100.000000 -370.000000 -348.000000
-1100.000000 -372.000000 -348.000000
-1100.000000 -374.000000 -348.000000
-1100.000000 -376.000000 -348.000000
-1100.000000 -378.000000 -348.000000
-1100.000000 -380.000000 -348.000000
-1100.000000 -382.000000 -348.000000
-1100.000000 -384.000000 -348.000000
-1100.000000 -386.000000 -348.000000
-1100.000000 -388.000000 -348.000000
-1100.000000 -390.000000 -348.000000
-1100.000000 -392.000000 -348.000000
-1100.000000 -394.000000 -348.000000
-1100.000000 -396.000000 -348.000000
-1100.000000 -398.000000 -348.000000
-1100.000000 -400.000000 -348.000000
-1100.000000 -402.000000 -348.000000
-1100.000000 -404.000000 -348.000000
-1100.000000 -406.000000 -348.000000
-1100.000000 -408.000000 -348.000000
-1100.000000 -410.000000 -348.000000
-1100.000000 -412.000000 -348.000000
-1100.000000 -414.000000 -348.000000
-1100.000000 -416.000000 -348.000000
-1100.000000 -418.000000 -348.000000
-1100.000000 -420.000000 -348.000000
-1100.000000 -422.000000 -348.000000
-1100.000000 -424.000000 -348.000000
-1100.000000 -426.000000 -348.000000
-1100.000000 -428.000000 -348.000000
-1100.000000 -430.000000 -348.000000
-1100.000000 -432.000000 -348.000000
-1100.000000 -434.000000 -348.000000
-1100.000000 -436.000000 -348.000000
-1100.000000 -438.000000 -348.000000
-1100.000000 -440.000000 -348.000000
-1100.000000 -442.000000 -348.000000
-1100.000000 -444.000000 -348.000000
-1100.000000 -446.000000 -348.000000
-1100.000000 -448.000000 -348.000000
-1100.000000 -450.000000 -348.000000
-1100.000000 -452.000000 -348.000000
-1100.000000 -454.000000 -348.000000
-1100.000000 -456.000000 -348.000000
-1100.000000 -458.000000 -348.000000
-1100.000000 -460.000000 -348.000000
-1100.000000 -462.000000 -348.000000
-1100.000000 -464.000000 -348.000000
-1100.000000 -466.000000 -348.000000
-1100.000000 -468.000000 -348.000000
-1100.000000 -470.000000 -348.000000
-1100.000000 -472.000000 -348.000000
-1100.000000 -474.000000 -348.000000
-1100.000000 -476.000000 -348.000000
-1100.000000 -478.000000 -348.000000
-1100.000000 -480.000000 -348.000000
-1100.000000 -482.000000 -348.000000
-1100.000000 -484.000000 -348.000000
-1100.000000 -486.000000 -348.000000
-1100.000000 -488.000000 -348.000000
-1100.000000 -490.000000 -348.000000
-1100.000000 -492.000000 -348.000000
-1100.000000 -494.000000 -348.000000
-1100.000000 -496.000000 -348.000000
-1100.000000 -498.000000 -348.000000
-1100.000000 -500.000000 -348.000000
-1100.000000 -502.000000 -348.000000
-1100.000000 -504.000000 -348.000000
-1100.000000 -506.000000 -348.000000
-1100.000000 -508.000000 -348.000000
-1100.000000 -510.000000 -348.000000
-1100.000000 -512.000000 -348.000000
-1100.000000 -514.000000 -348.000000
-1100.000000 -516.000000 -348.000000
-1100.000000 -518.000000 -348.000000
-1100.000000 -520.000000 -348.000000
-1100.000000 -522.000000 -348.000000
-1100.000000 -524.000000 -348.000000
-1100.000000 -526.000000 -348.000000
-1100.000000 -528.000000 -348.000000
-1100.000000 -530.000000 -348.000000
-1100.000000 -532.000000 -348.000000
-1100.000000 -534.000000 -348.000000
-1100.000000 -536.000000 -348.000000
-1100.000000 -538.000000 -348.000000
-1100.000000 -540.000000 -348.000000
-1100.000000 -542.000000 -348.000000
-1100.000000 -544.000000 -348.000000
-1100.000000 -546.000000 -348.000000
-1100.000000 -548.000000 -348.000000
-1100.000000 -550.000000 -348.000000
-1100.000000 -552.000000 -348.000000
-1100.000000 -554.000000 -348.000000
-1100.000000 -556.000000 -348.000000
-1100.000000 -558.000000 -348.000000
-1100.000000 -560.000000 -348.000000
-1100.000000 -562.000000 -348.000000
-1100.000000 -564.000000 -348.000000
-1100.000000 -566.000000 -348.000000
-1100.000000 -568.000000 -348.000000
-1100.000000 -570.000000 -348.000000
-1100.000000 -572.000000 -348.000000
-1100.000000 -574.000000 -348.000000
-1100.000000 -576.000000 -348.000000
-1100.000000 -578.000000 -348.000000
-1100.000000 -580.000000 -348.000000
-1100.000000 -582.000000 -348.000000
-1100.000000 -584.000000 -348.000000
-1100.000000 -586.000000 -348.000000
-1100.000000 -588.000000 -348.000000
-1100.000000 -590.000000 -348.000000
-1100.000000 -592.000000 -348.000000
-1100.000000 -594.000000 -348.000000
-1100.000000 -596.000000 -348.000000
-1100.000000 -598.000000 -348.000000
-1100.000000 -600.000000 -348.000000
-1100.000000 -602.000000 -348.000000
-1100.000000 -604.000000 -348.000000
-1100.000000 -606.000000 -348.000000
-1100.000000 -608.000000 -348.000000
-1100.000000 -610.000000 -348.000000
-1100.000000 -612.000000 -348.000000
-1100.000000 -614.000000 -348.000000
-1100.000000 -616.000000 -348.000000
-1100.000000 -618.000000 -348.000000
-1100.000000 -620.000000 -348.000000
-1100.000000 -622.000000 -348.000000
-1100.000000 -624.000000 -348.000000
-1100.000000 -626.000000 -348.000000
-1100.000000 -628.000000 -348.000000
-1100.000000 -630.000000 -348.000000
-1100.000000 -632.000000 -348.000000
-1100.000000 -634.000000 -348.000000
-1100.000000 -636.000000 -348.000000
-1100.000000 -638.000000 -348.000000
-1100.000000 -640.000000 -348.000000
-1100.000000 -642.000000 -348.000000
-1100.000000 -644.000000 -348.000000
-1100.000000 -646.000000 -348.000000
-1100.000000 -648.000000 -348.000000
-1100.000000 -650.000000 -348.000000
-1100.000000 -652.000000 -348.000000
-1100.000000 -654.000000 -348.000000
-1100.000000 -656.000000 -348.000000
-1100.000000 -658.000000 -348.000000
-1100.000000 -660.000000 -348.000000
-1100.000000 -662.000000 -348.000000
-1100.000000 -664.000000 -348.000000
-1100.000000 -666.000000 -348.000000
-1100.000000 -668.000000 -348.000000
-1100.000000 -670.000000 -348.000000
-1100.000000 -672.000000 -348.000000
-1100.000000 -674.000000 -348.000000
-1100.000000 -676.000000 -348.000000
-1100.000000 -678.000000 -348.000000
-1100.000000 -680.000000 -348.000000
-1100.000000 -682.000000 -348.000000
-1100.000000 -684.000000 -348.000000
-1100.000000 -686.000000 -348.000000
-1100.000000 -688.000000 -348.000000
-1100.000000 -690.000000 -348.000000
-1100.000000 -692.000000 -348.000000
-1100.000000 -694.000000 -348.000000
-1100.000000 -696.000000 -348.000000
-1100.000000 -698.000000 -348.000000
-1100.000000 -700.000000 -348.000000
-1100.000000 -702.000000 -348.000000
-1100.000000 -704.000000 -348.000000
-1100.000000 -706.000000 -348.000000
-1100.000000 -708.000000 -348.000000
-1100.000000 -710.000000 -348.000000
-1100.000000 -712.000000 -348.000000
-1100.000000 -714.000000 -348.000000
-1100.000000 -716.000000 -348.000000
-1100.000000 -718.000000 -348.000000
-1100.000000 -720.000000 -348.000000
-1100.000000 -722.000000 -348.000000
-1100.000000 -724.000000 -348.000000
-1100.000000 -726.000000 -348.000000
-1100.000000 -728.000000 -348.000000
-1100.000000 -730.000000 -348.000000
-1100.000000 -732.000000 -348.000000
-1100.000000 -734.000000 -348.000000
-1100.000000 -736.000000 -348.000000
-1100.000000 -738.000000 -348.000000
-1100.000000 -740.000000 -348.000000
-1100.000000 -742.000000 -348.000000
-1100.000000 -744.000000 -348.000000
-1100.000000 -746.000000 -348.000000
-1100.000000 -748.000000 -348.000000
-1100.000000 -750.000000 -348.000000
-1100.000000 -752.000000 -348.000000
-1100.000000 -754.000000 -348.000000
-1100.000000 -756.000000 -348.000000
-1100.000000 -758.000000 -348.000000
-1100.000000 -760.000000 -348.000000
-1100.000000 -762.000000 -348.000000
-1100.000000 -764.000000 -348.000000
-1100.000000 -766.000000 -348.000000
-1100.000000 -768.000000 -348.000000
-1100.000000 -770.000000 -348.000000
-1100.000000 -772.000000 -348.000000
-1100.000000 -774.000000 -348.000000
-1100.000000 -776.000000 -348.000000
-1100.000000 -778.000000 -348.000000
-1100.000000 -780.000000 -348.000000
-1100.000000 -782.000000 -348.000000
-1100.000000 -784.000000 -348.000000
-1100.000000 -786.000000 -348.000000
-1100.000000 -788.000000 -348.000000
-1100.000000 -790.000000 -348.000000
-1100.000000 -792.000000 -348.000000
-1100.000000 -794.000000 -348.000000
-1100.000000 -796.000000 -348.000000
-1100.000000 -798.000000 -348.000000
-1100.000000 -800.000000 -348.000000
-1100.000000 -802.000000 -348.000000
-1100.000000 -804.000000 -348.000000
-1100.000000 -806.000000 -348.000000
-1100.000000 -808.000000 -348.000000
-1100.000000 -810.000000 -348.000000
-1100.000000 -812.000000 -348.000000
-1100.000000 -814.000000 -348.000000
-1100.000000 -816.000000 -348.000000
-1100.000000 -818.000000 -348.000000
-1100.000000 -820.000000 -348.000000
-1100.000000 -822.000000 -348.000000
-1100.000000 -824.000000 -348.000000
-1100.000000 -826.000000 -348.000000
-1100.000000 -828.000000 -348.000000
-1100.000000 -831.000000 -348.000000
-1100.000000 -833.000000 -348.000000
-1100.000000 -835.000000 -348.000000
-1100.000000 -837.000000 -348.000000
-1100.000000 -839.000000 -348.000000
-1100.000000 -841.000000 -348.000000
-1100.000000 -843.000000 -348.000000
-1100.000000 -845.000000 -348.000000
-1100.000000 -847.000000 -348.000000
-1100.000000 -849.000000 -348.000000
-1100.000000 -851.000000 -348.000000
-1100.000000 -853.000000 -348.000000
-1100.000000 -855.000000 -348.000000
-1100.000000 -857.000000 -348.000000
-1100.000000 -859.000000 -348.000000
-1100.000000 -861.000000 -348.000000
-1100.000000 -863.000000 -348.000000
-1100.000000 -865.000000 -348.000000
-1100.000000 -867.000000 -348.000000
-1100.000000 -869.000000 -348.000000
-1100.000000 -871.000000 -348.000000
-1100.000000 -873.000000 -348.000000
-1100.000000 -875.000000 -348.000000
-1100.000000 -877.000000 -348.000000
-1100.000000 -879.000000 -348.000000
-1100.000000 -881.000000 -348.000000
-1100.000000 -883.000000 -348.000000
-1100.000000 -885.000000 -348.000000
-1100.000000 -887.000000 -348.000000
-1100.000000 -889.000000 -348.000000
-1100.000000 -891.000000 -348.000000
-1100.000000 -893.000000 -348.000000
-1100.000000 -895.000000 -348.000000
-1100.000000 -897.000000 -348.000000
-1100.000000 -899.000000 -348.000000
-1100.000000 -901.000000 -348.000000
-1100.000000 -903.000000 -348.000000
-1100.000000 -905.000000 -348.000000
-1100.000000 -907.000000 -348.000000
-1100.000000 -909.000000 -348.000000
-1100.000000 -911.000000 -348.000000
-1100.000000 -913.000000 -348.000000
-1100.000000 -915.000000 -348.000000
-1100.000000 -917.000000 -348.000000
-1100.000000 -919.000000 -348.000000
-1100.000000 -921.000000 -348.000000
-1100.000000 -923.000000 -348.000000
-1100.000000 -925.000000 -348.000000
-1100.000000 -927.000000 -348.000000
-1100.000000 -929.000000 -348.000000
-1100.000000 -931.000000 -348.000000
-1100.000000 -933.000000 -348.000000
-1100.000000 -935.000000 -348.000000
-1100.000000 -937.000000 -348.000000
-1100.000000 -939.000000 -348.000000
-1100.000000 -941.000000 -348.000000
-1100.000000 -943.000000 -348.000000
-1100.000000 -945.000000 -348.000000
-1100.000000 -947.000000 -348.000000
-1100.000000 -949.000000 -348.000000
-1100.000000 -951.000000 -348.000000
-1100.000000 -953.000000 -348.000000
-1100.000000 -955.000000 -348.000000
-1100.000000 -957.000000 -348.000000
-1100.000000 -959.000000 -348.000000
-1100.000000 -961.000000 -348.000000
-1100.000000 -963.000000 -348.000000
-1100.000000 -965.000000 -348.000000
-1100.000000 -967.000000 -348.000000
-1100.000000 -969.000000 -348.000000
-1100.000000 -971.000000 -348.000000
-1100.000000 -973.000000 -348.000000
-1100.000000 -975.000000 -348.000000
-1100.000000 -977.000000 -348.000000
-1100.000000 -979.000000 -348.000000
-1100.000000 -981.000000 -348.000000
-1100.000000 -983.000000 -348.000000
-1100.000000 -985.000000 -348.000000
-1100.000000 -987.000000 -348.000000
-1100.000000 -989.000000 -348.000000
-1100.000000 -991.000000 -348.000000
-1100.000000 -993.000000 -348.000000
-1100.000000 -995.000000 -348.000000
-1100.000000 -997.000000 -348.000000
-1100.000000 -999.000000 -348.000000
-1100.000000 -1001.000000 -348.000000
-1100.000000 -1003.000000 -348.000000
-1100.000000 -1005.000000 -348.000000
-1100.000000 -1007.000000 -348.000000
-1100.000000 -1009.000000 -348.000000
-1100.000000 -1011.000000 -348.000000
-1100.000000 -1013.000000 -348.000000
-1100.000000 -1015.000000 -348.000000
-1100.000000 -1017.000000 -348.000000
-1100.000000 -1019.000000 -348.000000
-1100.000000 -1021.000000 -348.000000
-1100.000000 -1023.000000 -348.000000
-1100.000000 -1025.000000 -348.000000
-1100.000000 -1027.000000 -348.000000
-1100.000000 -1029.000000 -348.000000
-1100.000000 -1031.000000 -348.000000
-1100.000000 -1033.000000 -348.000000
-1100.000000 -1035.000000 -348.000000
-1100.000000 -1037.000000 -348.000000
-1100.000000 -1039.000000 -348.000000
-1100.000000 -1041.000000 -348.000000
-1100.000000 -1043.000000 -348.000000
-1100.000000 -1045.000000 -348.000000
-1100.000000 -1047.000000 -348.000000
-1100.000000 -1049.000000 -348.000000
-1100.000000 -1051.000000 -348.000000
-1100.000000 -1053.000000 -348.000000
-1100.000000 -1055.000000 -348.000000
-1100.000000 -1057.000000 -348.000000
-1100.000000 -1059.000000 -348.000000
-1100.000000 -1061.000000 -348.000000
-1100.000000 -1063.000000 -348.000000
-1100.000000 -1065.000000 -348.000000
-1100.000000 -1067.000000 -348.000000
-1100.000000 -1069.000000 -348.000000
-1100.000000 -1071.000000 -348.000000
-1100.000000 -1073.000000 -348.000000
-1100.000000 -1075.000000 -348.000000
-1100.000000 -1077.000000 -348.000000
-1100.000000 -1079.000000 -348.000000
-1100.000000 -1081.000000 -348.000000
-1100.000000 -1083.000000 -348.000000
-1100.000000 -1085.000000 -348.000000
-1100.000000 -1087.000000 -348.000000
-1100.000000 -1089.000000 -348.000000
-1100.000000 -1091.000000 -348.000000
-1100.000000 -1093.000000 -348.000000
-1100.000000 -1095.000000 -348.000000
-1100.000000 -1097.000000 -348.000000
-1100.000000 -1099.000000 -348.000000
-1100.000000 -1101.000000 -348.000000
-1100.000000 -1103.000000 -348.000000
-1100.000000 -1105.000000 -348.000000
-1100.000000 -1107.000000 -348.000000
-1100.000000 -1109.000000 -348.000000
-1100.000000 -1111.000000 -348.000000
-1100.000000 -1113.000000 -348.000000
-1100.000000 -1115.000000 -348.000000
-1100.000000 -1117.000000 -348.000000
-1100.000000 -1119.000000 -348.000000
-1100.000000 -1121.000000 -348.000000
-1100.000000 -1123.000000 -348.000000
-1100.000000 -1125.000000 -348.000000
-1100.000000 -1127.000000 -348.000000
-1100.000000 -1129.000000 -348.000000
-1100.000000 -1131.000000 -348.000000
-1100.000000 -1133.000000 -348.000000
-1100.000000 -1135.000000 -348.000000
-1100.000000 -1137.000000 -348.000000
-1100.000000 -1139.000000 -348.000000
-1100.000000 -1141.000000 -348.000000
-1100.000000 -1143.000000 -348.000000
-1100.000000 -1145.000000 -348.000000
-1100.000000 -1147.000000 -348.000000
-1100.000000 -1149.000000 -348.000000
-1100.000000 -1151.000000 -348.000000
-1100.000000 -1153.000000 -348.000000
-1100.000000 -1155.000000 -348.000000
-1100.000000 -1157.000000 -348.000000
-1100.000000 -1159.000000 -348.000000
-1100.000000 -1161.000000 -348.000000
-1100.000000 -1163.000000 -348.000000
-1100.000000 -1165.000000 -348.000000
-1100.000000 -1167.000000 -348.000000
-1100.000000 -1169.000000 -348.000000
-1100.000000 -1171.000000 -348.000000
-1100.000000 -1173.000000 -348.000000
-1100.000000 -1175.000000 -348.000000
-1100.000000 -1177.000000 -348.000000
-1100.000000 -1179.000000 -348.000000
-1100.000000 -1181.000000 -348.000000
-1100.000000 -1183.000000 -348.000000
-1100.000000 -1185.000000 -348.000000
-1100.000000 -1187.000000 -348.000000
-1100.000000 -1189.000000 -348.000000
-1100.000000 -1191.000000 -348.000000
-1100.000000 -1193.000000 -348.000000
-1100.000000 -1195.000000 -348.000000
-1100.000000 -1197.000000 -348.000000
-1100.000000 -1199.000000 -348.000000
-1100.000000 -1201.000000 -348.000000
-1100.000000 -1203.000000 -348.000000
-1100.000000 -1205.000000 -348.000000
-1100.000000 -1207.000000 -348.000000
-1100.000000 -1209.000000 -348.000000
-1100.000000 -1211.000000 -348.000000
-1100.000000 -1213.000000 -348.000000
-1100.000000 -1215.000000 -348.000000
-1100.000000 -1217.000000 -348.000000
-1100.000000 -1219.000000 -348.000000
-1100.000000 -1221.000000 -348.000000
-1100.000000 -1223.000000 -348.000000
-1100.000000 -1225.000000 -348.000000
-1100.000000 -1227.000000 -348.000000
-1100.000000 -1229.000000 -348.000000
-1100.000000 -1231.000000 -348.000000
-1100.000000 -1233.000000 -348.000000
-1100.000000 -1235.000000 -348.000000
-1100.000000 -1237.000000 -348.000000
-1100.000000 -1239.000000 -348.000000
-1100.000000 -1241.000000 -348.000000
-1100.000000 -1243.000000 -348.000000
-1100.000000 -1245.000000 -348.000000
-1100.000000 -1248.000000 -348.000000
-1100.000000 -1250.000000 -348.000000
-1100.000000 -1252.000000 -348.000000
-1100.000000 -1254.000000 -348.000000
-1100.000000 -1256.000000 -348.000000
-1100.000000 -1258.000000 -348.000000
-1100.000000 -1260.000000 -348.000000
-1100.000000 -1262.000000 -348.000000
-1100.000000 -1264.000000 -348.000000
-1100.000000 -1266.000000 -348.000000
-1100.000000 -1268.000000 -348.000000
-1100.000000 -1270.000000 -348.000000
-1100.000000 -1272.000000 -348.000000
-1100.000000 -1274.000000 -348.000000
-1100.000000 -1276.000000 -348.000000
-1100.000000 -1280.000000 -348.000000
-1099.249243 -1281.073867 -346.488983
-1098.498486 -1282.147735 -344.977966
-1097.747729 -1283.221602 -343.466949
-1096.996972 -1284.295470 -341.955932
-1096.246215 -1285.369337 -340.444915
-1095.495458 -1286.443205 -338.933897
-1094.744702 -1287.517072 -337.422880
-1093.993945 -1288.590940 -335.911863
-1093.243188 -1289.664807 -334.400846
-1092.492431 -1290.738675 -332.889829
-1091.741674 -1291.812542 -331.378812
-1090.990917 -1292.886410 -329.867795
-1090.240160 -1293.960277 -328.356778
-1089.489403 -1295.034145 -326.845761
-1088.738646 -1296.108012 -325.334744
-1087.987889 -1297.181880 -323.823727
-1087.237132 -1298.255747 -322.312709
-1086.486375 -1299.329615 -320.801692
-1085.735619 -1300.403482 -319.290675
-1084.984862 -1301.477350 -317.779658
-1084.234105 -1302.551217 -316.268641
-1083.483348 -1303.625085 -314.757624
-1082.732591 -1304.698952 -313.246607
-1081.981834 -1305.772820 -311.735590
-1081.231077 -1306.846687 -310.224573
-1080.480320 -1307.920555 -308.713556
-1079.729563 -1308.994422 -307.202539
-1078.978806 -1310.068290 -305.691521
-1078.228049 -1311.142157 -304.180504
-1077.477292 -1312.216025 -302.669487
-1076.726535 -1313.289892 -301.158470
-1075.975779 -1314.363760 -299.647453
-1075.225022 -1315.437627 -298.136436
-1074.474265 -1316.511495 -296.625419
-1073.723508 -1317.585362 -295.114402
-1072.972751 -1318.659230 -293.603385
-1072.221994 -1319.733097 -292.092368
-1071.471237 -1320.806965 -290.581350
-1070.720480 -1321.880832 -289.070333
-1069.969723 -1322.954700 -287.559316
-1069.218966 -1324.028567 -286.048299
-1068.468209 -1325.102435 -284.537282
-1067.717452 -1326.176302 -283.026265
-1066.966696 -1327.250170 -281.515248
-1066.215939 -1328.324037 -280.004231
-1065.465182 -1329.397905 -278.493214
-1064.714425 -1330.471772 -276.982197
-1063.963668 -1331.545640 -275.471180
-1063.212911 -1332.619507 -273.960162
-1062.462154 -1333.693375 -272.449145
-1061.711397 -1334.767242 -270.938128
-1060.960640 -1335.841110 -269.427111
-1060.209883 -1336.914977 -267.916094
-1059.459126 -1337.988845 -266.405077
-1058.708369 -1339.062712 -264.894060
-1057.957612 -1340.136580 -263.383043
-1057.206856 -1341.210447 -261.872026
-1056.456099 -1342.284315 -260.361009
-1055.705342 -1343.358182 -258.849992
-1054.954585 -1344.432050 -257.338974
-1054.203828 -1345.505917 -255.827957
-1053.453071 -1346.579785 -254.316940
-1052.702314 -1347.653652 -252.805923
-1051.951557 -1348.727520 -251.294906
-1051.200800 -1349.801387 -249.783889
-1050.450043 -1350.875255 -248.272872
-1049.699286 -1351.949122 -246.761855
-1048.948529 -1353.022990 -245.250838
-1048.197773 -1354.096857 -243.739821
-1047.447016 -1355.170725 -242.228804
-1046.696259 -1356.244592 -240.717786
-1045.945502 -1357.318460 -239.206769
-1045.194745 -1358.392327 -237.695752
-1044.443988 -1359.466195 -236.184735
-1043.693231 -1360.540062 -234.673718
-1042.942474 -1361.613929 -233.162701
-1042.191717 -1362.687797 -231.651684
-1041.440960 -1363.761664 -230.140667
-1040.690203 -1364.835532 -228.629650
-1039.939446 -1365.909399 -227.118633
-1039.188689 -1366.983267 -225.607616
-1038.437933 -1368.057134 -224.096598
-1037.687176 -1369.131002 -222.585581
-1036.936419 -1370.204869 -221.074564
-1036.185662 -1371.278737 -219.563547
-1035.434905 -1372.352604 -218.052530
-1034.684148 -1373.426472 -216.541513
-1033.933391 -1374.500339 -215.030496
-1033.182634 -1375.574207 -213.519479
-1032.431877 -1376.648074 -212.008462
-1031.681120 -1377.721942 -210.497445
-1030.930363 -1378.795809 -208.986427
-1030.179606 -1379.869677 -207.475410
-1029.428850 -1380.943544 -205.964393
-1028.678093 -1382.017412 -204.453376
-1027.927336 -1383.091279 -202.942359
-1027.176579 -1384.165147 -201.431342
-1026.425822 -1385.239014 -199.920325
-1025.675065 -1386.312882 -198.409308
-1024.924308 -1387.386749 -196.898291
-1024.173551 -1388.460617 -195.387274
-1023.422794 -1389.534484 -193.876257
-1022.672037 -1390.608352 -192.365239
-1021.921280 -1391.682219 -190.854222
-1021.170523 -1392.756087 -189.343205
-1020.419766 -1393.829954 -187.832188
-1019.669010 -1394.903822 -186.321171
-1018.918253 -1395.977689 -184.810154
-1018.167496 -1397.051557 -183.299137
-1017.416739 -1398.125424 -181.788120
-1016.665982 -1399.199292 -180.277103
-1015.915225 -1400.273159 -178.766086
-1015.164468 -1401.347027 -177.255069
-1014.413711 -1402.420894 -175.744051
-1013.662954 -1403.494762 -174.233034
-1012.912197 -1404.568629 -172.722017
-1012.161440 -1405.642497 -171.211000
-1011.410683 -1406.716364 -169.699983
-1010.659927 -1407.790232 -168.188966
-1009.909170 -1408.864099 -166.677949
-1009.158413 -1409.937967 -165.166932
-1008.407656 -1411.011834 -163.655915
-1007.656899 -1412.085702 -162.144898
-1006.906142 -1413.159569 -160.633881
-1006.155385 -1414.233437 -159.122863
-1005.404628 -1415.307304 -157.611846
-1004.653871 -1416.381172 -156.100829
-1003.903114 -1417.455039 -154.589812
-1003.152357 -1418.528907 -153.078795
-1002.401600 -1419.602774 -151.567778
-1001.650843 -1420.676642 -150.056761
-1000.900087 -1421.750509 -148.545744
-1000.149330 -1422.824377 -147.034727
-999.398573 -1423.898244 -145.523710
-998.647816 -1424.972112 -144.012693
-997.897059 -1426.045979 -142.501675
-997.146302 -1427.119847 -140.990658
-996.395545 -1428.193714 -139.479641
-995.644788 -1429.267582 -137.968624
-994.894031 -1430.341449 -136.457607
-994.143274 -1431.415317 -134.946590
-993.392517 -1432.489184 -133.435573
-992.641760 -1433.563052 -131.924556
-991.891004 -1434.636919 -130.413539
-991.140247 -1435.710787 -128.902522
-990.389490 -1436.784654 -127.391505
-989.638733 -1437.858522 -125.880487
-988.887976 -1438.932389 -124.369470
-988.137219 -1440.006257 -122.858453
-987.386462 -1441.080124 -121.347436
-986.635705 -1442.153991 -119.836419
-985.884948 -1443.227859 -118.325402
-985.134191 -1444.301726 -116.814385
-984.383434 -1445.375594 -115.303368
-983.632677 -1446.449461 -113.792351
-982.881920 -1447.523329 -112.281334
-982.131164 -1448.597196 -110.770316
-981.380407 -1449.671064 -109.259299
-980.629650 -1450.744931 -107.748282
-979.878893 -1451.818799 -106.237265
-979.128136 -1452.892666 -104.726248
-978.377379 -1453.966534 -103.215231
-977.626622 -1455.040401 -101.704214
-976.875865 -1456.114269 -100.193197
-976.125108 -1457.188136 -98.682180
-975.374351 -1458.262004 -97.171163
-974.623594 -1459.335871 -95.660146
-973.872837 -1460.409739 -94.149128
-973.122080 -1461.483606 -92.638111
-972.371324 -1462.557474 -91.127094
-971.620567 -1463.631341 -89.616077
-970.869810 -1464.705209 -88.105060
-970.119053 -1465.779076 -86.594043
-969.368296 -1466.852944 -85.083026
-968.617539 -1467.926811 -83.572009
-967.866782 -1469.000679 -82.060992
-967.116025 -1470.074546 -80.549975
-966.365268 -1471.148414 -79.038958
-965.614511 -1472.222281 -77.527940
-964.863754 -1473.296149 -76.016923
-964.112997 -1474.370016 -74.505906
-963.362241 -1475.443884 -72.994889
-962.611484 -1476.517751 -71.483872
-961.860727 -1477.591619 -69.972855
-961.109970 -1478.665486 -68.461838
-960.359213 -1479.739354 -66.950821
-959.608456 -1480.813221 -65.439804
-958.857699 -1481.887089 -63.928787
-958.106942 -1482.960956 -62.417770
-957.356185 -1484.034824 -60.906752
-956.605428 -1485.108691 -59.395735
-955.854671 -1486.182559 -57.884718
-955.103914 -1487.256426 -56.373701
-954.353157 -1488.330294 -54.862684
-953.602401 -1489.404161 -53.351667
-952.851644 -1490.478029 -51.840650
-952.100887 -1491.551896 -50.329633
-951.350130 -1492.625764 -48.818616
-950.599373 -1493.699631 -47.307599
-949.848616 -1494.773499 -45.796582
-949.097859 -1495.847366 -44.285564
-948.347102 -1496.921234 -42.774547
-947.596345 -1497.995101 -41.263530
-946.845588 -1499.068969 -39.752513
-946.094831 -1500.142836 -38.241496
-945.344074 -1501.216704 -36.730479
-944.593318 -1502.290571 -35.219462
-943.842561 -1503.364439 -33.708445
-943.091804 -1504.438306 -32.197428
-942.341047 -1505.512174 -30.686411
-941.590290 -1506.586041 -29.175393
-940.839533 -1507.659909 -27.664376
-940.088776 -1508.733776 -26.153359
-939.338019 -1509.807644 -24.642342
-938.587262 -1510.881511 -23.131325
-937.836505 -1511.955379 -21.620308
-937.085748 -1513.029246 -20.109291
-936.334991 -1514.103114 -18.598274
-935.584234 -1515.176981 -17.087257
-934.833478 -1516.250849 -15.576240
-934.082721 -1517.324716 -14.065223
-933.331964 -1518.398584 -12.554205
-932.581207 -1519.472451 -11.043188
-931.830450 -1520.546319 -9.532171
-931.079693 -1521.620186 -8.021154
-930.328936 -1522.694053 -6.510137
-929.578179 -1523.767921 -4.999120
-928.827422 -1524.841788 -3.488103
-928.076665 -1525.915656 -1.977086
-927.325908 -1526.989523 -0.466069
-926.575151 -1528.063391 1.044948
-925.824395 -1529.137258 2.555965
-925.073638 -1530.211126 4.066983
-924.322881 -1531.284993 5.578000
-923.572124 -1532.358861 7.089017
-922.821367 -1533.432728 8.600034
-922.070610 -1534.506596 10.111051
-921.319853 -1535.580463 11.622068
-920.569096 -1536.654331 13.133085
-919.818339 -1537.728198 14.644102
-919.067582 -1538.802066 16.155119
-918.316825 -1539.875933 17.666136
-917.566068 -1540.949801 19.177153
-916.815311 -1542.023668 20.688171
-916.064555 -1543.097536 22.199188
-915.313798 -1544.171403 23.710205
-914.563041 -1545.245271 25.221222
-913.812284 -1546.319138 26.732239
-913.061527 -1547.393006 28.243256
-912.310770 -1548.466873 29.754273
-911.560013 -1549.540741 31.265290
-910.809256 -1550.614608 32.776307
-910.058499 -1551.688476 34.287324
-909.307742 -1552.762343 35.798341
-908.556985 -1553.836211 37.309359
-907.806228 -1554.910078 38.820376
-907.055472 -1555.983946 40.331393
-906.304715 -1557.057813 41.842410
-905.553958 -1558.131681 43.353427
-904.803201 -1559.205548 44.864444
-904.052444 -1560.279416 46.375461
-903.301687 -1561.353283 47.886478
-902.550930 -1562.427151 49.397495
-901.800173 -1563.501018 50.908512
-901.049416 -1564.574886 52.419529
-900.298659 -1565.648753 53.930547
-899.547902 -1566.722621 55.441564
-898.797145 -1567.796488 56.952581
-898.046388 -1568.870356 58.463598
-897.295632 -1569.944223 59.974615
-896.544875 -1571.018091 61.485632
-895.794118 -1572.091958 62.996649
-895.043361 -1573.165826 64.507666
-894.292604 -1574.239693 66.018683
-893.541847 -1575.313561 67.529700
-892.791090 -1576.387428 69.040718
-892.040333 -1577.461296 70.551735
-891.289576 -1578.535163 72.062752
-890.538819 -1579.609031 73.573769
-889.788062 -1580.682898 75.084786
-889.037305 -1581.756766 76.595803
-888.286549 -1582.830633 78.106820
-887.535792 -1583.904501 79.617837
-886.785035 -1584.978368 81.128854
-886.034278 -1586.052236 82.639871
-885.283521 -1587.126103 84.150888
-884.532764 -1588.199971 85.661906
-883.782007 -1589.273838 87.172923
-883.031250 -1590.347706 88.683940
-882.280493 -1591.421573 90.194957
-881.529736 -1592.495441 91.705974
-880.778979 -1593.569308 93.216991
-880.028222 -1594.643176 94.728008
-879.277465 -1595.717043 96.239025
-878.526709 -1596.790911 97.750042
-877.775952 -1597.864778 99.261059
-877.025195 -1598.938646 100.772076
-876.274438 -1600.012513 102.283094
-875.523681 -1601.086381 103.794111
-874.772924 -1602.160248 105.305128
-874.022167 -1603.234115 106.816145
-873.271410 -1604.307983 108.327162
-872.520653 -1605.381850 109.838179
-871.769896 -1606.455718 111.349196
-871.019139 -1607.529585 112.860213
-870.268382 -1608.603453 114.371230
-869.517626 -1609.677320 115.882247
-868.766869 -1610.751188 117.393264
-868.016112 -1611.825055 118.904282
-867.265355 -1612.898923 120.415299
-866.514598 -1613.972790 121.926316
-865.763841 -1615.046658 123.437333
-865.013084 -1616.120525 124.948350
-864.262327 -1617.194393 126.459367
